0.392708 0.048494 0.363450 100 3 6
0.367404 0.083134 0.395270 100 3 8
0.393261 0.037333 0.399114 100 3 10
0.401251 0.072802 0.394626 100 3 12
0.381596 0.079796 0.390989 100 3 14
0.364675 0.054477 0.388994 100 3 16
0.368687 0.067246 0.398885 100 3 18
0.401314 0.046395 0.476492 100 3 20
0.393574 0.068089 0.488228 100 3 22
0.383218 0.074074 0.487077 100 3 24
0.389700 0.064349 0.383195 100 4 6
0.404455 0.050327 0.388206 100 4 8
0.409178 0.027211 0.379510 100 4 10
0.400508 0.045466 0.392373 100 4 12
0.380131 0.081055 0.374425 100 4 14
0.406249 0.074639 0.486445 100 4 16
0.377340 0.080090 0.478110 100 4 18
0.385530 0.082874 0.491482 100 4 20
0.414502 0.050028 0.479227 100 4 22
0.388474 0.064204 0.514055 100 4 24
0.423393 0.032417 0.385436 100 5 6
0.410126 0.054062 0.386737 100 5 8
0.406257 0.035356 0.374627 100 5 10
0.421926 0.040837 0.440179 100 5 12
0.416458 0.066339 0.483740 100 5 14
0.392764 0.048182 0.474065 100 5 16
0.404563 0.030873 0.489385 100 5 18
0.401039 0.043727 0.525533 100 5 20
0.384935 0.052065 0.583225 100 5 22
0.387197 0.057621 0.586582 100 5 24
0.406748 0.071172 0.385901 100 6 6
0.413820 0.045640 0.382571 100 6 8
0.420042 0.026468 0.454835 100 6 10
0.407933 0.062834 0.486469 100 6 12
0.412081 0.050453 0.497337 100 6 14
0.424024 0.046469 0.490755 100 6 16
0.401301 0.050418 0.576412 100 6 18
0.398599 0.056583 0.590328 100 6 20
0.396963 0.031842 0.593514 100 6 22
0.415042 0.046091 0.629146 100 6 24
0.439443 0.052616 0.394893 100 8 6
0.420921 0.047689 0.498077 100 8 8
0.449332 0.024556 0.487399 100 8 10
0.421950 0.044380 0.482949 100 8 12
0.408497 0.056567 0.584953 100 8 14
0.408775 0.031751 0.582708 100 8 16
0.423935 0.051605 0.620633 100 8 18
0.417787 0.062036 0.687585 100 8 20
0.417073 0.034577 0.701822 100 8 22
0.423034 0.051562 0.741602 100 8 24
0.447886 0.038284 0.447510 100 10 6
0.450201 0.042775 0.492416 100 10 8
0.447415 0.080549 0.497980 100 10 10
0.444536 0.025374 0.586384 100 10 12
0.429718 0.054489 0.581928 100 10 14
0.421355 0.061977 0.678670 100 10 16
0.421084 0.057053 0.694281 100 10 18
0.429293 0.031626 0.728380 100 10 20
0.428532 0.034129 0.783029 100 10 22
0.430777 0.057241 0.837495 100 10 24
0.434008 0.037065 0.494510 100 12 6
0.436309 0.052753 0.482751 100 12 8
0.452346 0.025639 0.594484 100 12 10
0.420740 0.036605 0.578721 100 12 12
0.455558 0.038606 0.692110 100 12 14
0.439688 0.060822 0.695783 100 12 16
0.449348 0.063893 0.776281 100 12 18
0.452470 0.055625 0.801215 100 12 20
0.441626 0.034195 0.845761 100 12 22
0.423410 0.032232 0.903863 100 12 24
0.428873 0.047437 0.479281 100 14 6
0.437165 0.040867 0.502476 100 14 8
0.435015 0.052782 0.573402 100 14 10
0.435289 0.058167 0.599568 100 14 12
0.427368 0.055820 0.679705 100 14 14
0.434449 0.044274 0.715366 100 14 16
0.421848 0.048967 0.781141 100 14 18
0.420793 0.038176 0.833346 100 14 20
0.431580 0.056262 0.879720 100 14 22
0.433004 0.043820 0.917308 100 14 24
0.429393 0.032609 0.463401 100 16 6
0.444707 0.056872 0.485381 100 16 8
0.446404 0.059444 0.559443 100 16 10
0.435150 0.035971 0.609007 100 16 12
0.430465 0.025225 0.675842 100 16 14
0.430051 0.066313 0.765986 100 16 16
0.415090 0.060048 0.783301 100 16 18
0.438812 0.057619 0.851011 100 16 20
0.422671 0.047003 0.900825 100 16 22
0.432854 0.040279 0.961609 100 16 24
0.446317 0.034484 0.464173 100 18 6
0.444461 0.035039 0.557824 100 18 8
0.436285 0.025301 0.570478 100 18 10
0.438619 0.039873 0.644044 100 18 12
0.420869 0.018936 0.686456 100 18 14
0.425562 0.026324 0.753840 100 18 16
0.442855 0.041124 0.769359 100 18 18
0.440250 0.036715 0.872969 100 18 20
0.445727 0.036461 0.930469 100 18 22
0.432488 0.022585 1.017701 100 18 24
0.369886 0.054764 2.418852 1000 3 6
0.404925 0.052629 2.502360 1000 3 8
0.384314 0.045634 2.713975 1000 3 10
0.406653 0.020298 2.923670 1000 3 12
0.393893 0.047319 3.055490 1000 3 14
0.393749 0.037330 3.220417 1000 3 16
0.379697 0.053078 3.333829 1000 3 18
0.392712 0.061087 3.446638 1000 3 20
0.383403 0.073759 3.648114 1000 3 22
0.393271 0.058747 3.767355 1000 3 24
0.398216 0.049472 2.724649 1000 4 6
0.395474 0.039596 2.861039 1000 4 8
0.406104 0.050403 3.026259 1000 4 10
0.401508 0.048800 3.172413 1000 4 12
0.407769 0.035037 3.468444 1000 4 14
0.397125 0.044289 3.556045 1000 4 16
0.383423 0.047801 3.721147 1000 4 18
0.410436 0.017627 3.959713 1000 4 20
0.398750 0.047436 4.196325 1000 4 22
0.389743 0.113824 4.359762 1000 4 24
0.416696 0.017547 2.822407 1000 5 6
0.420953 0.036415 2.961118 1000 5 8
0.406310 0.056386 3.238809 1000 5 10
0.398500 0.081701 3.403119 1000 5 12
0.403445 0.072749 3.688522 1000 5 14
0.404406 0.095941 3.953794 1000 5 16
0.385745 0.060388 4.188298 1000 5 18
0.413158 0.048155 4.468337 1000 5 20
0.389262 0.058476 4.645251 1000 5 22
0.415098 0.046619 4.849398 1000 5 24
0.431674 0.037411 2.918359 1000 6 6
0.435676 0.034136 3.252397 1000 6 8
0.442028 0.044756 3.462594 1000 6 10
0.437213 0.052762 3.688673 1000 6 12
0.408839 0.036523 4.075595 1000 6 14
0.420341 0.047234 4.356897 1000 6 16
0.419787 0.051018 4.550531 1000 6 18
0.425923 0.042993 4.862965 1000 6 20
0.413565 0.086140 5.160728 1000 6 22
0.433213 0.054811 5.437788 1000 6 24
0.430173 0.038138 3.246454 1000 8 6
0.427584 0.053712 3.554377 1000 8 8
0.450129 0.034533 3.837450 1000 8 10
0.445739 0.047053 4.274817 1000 8 12
0.432515 0.042979 4.674896 1000 8 14
0.439419 0.032245 5.002463 1000 8 16
0.420354 0.055653 5.403810 1000 8 18
0.429807 0.054906 5.754867 1000 8 20
0.434179 0.046599 6.109578 1000 8 22
0.441818 0.028808 6.430124 1000 8 24
0.423563 0.036316 3.488965 1000 10 6
0.450213 0.040841 3.863721 1000 10 8
0.441279 0.043328 4.338001 1000 10 10
0.423052 0.034409 4.818208 1000 10 12
0.433500 0.036002 5.213851 1000 10 14
0.415063 0.040097 5.661076 1000 10 16
0.413903 0.067836 6.113105 1000 10 18
0.451543 0.036151 6.497679 1000 10 20
0.426415 0.068584 6.907171 1000 10 22
0.439305 0.030917 7.331212 1000 10 24
0.439359 0.033975 3.723728 1000 12 6
0.431963 0.047936 4.125353 1000 12 8
0.441160 0.048114 4.663753 1000 12 10
0.447491 0.041187 5.116922 1000 12 12
0.424988 0.033306 5.594974 1000 12 14
0.438039 0.050214 6.068121 1000 12 16
0.444287 0.040230 6.574888 1000 12 18
0.430337 0.037062 7.046708 1000 12 20
0.440306 0.050681 7.634313 1000 12 22
0.453188 0.033329 8.191307 1000 12 24
0.452808 0.043679 3.915759 1000 14 6
0.440110 0.051339 4.424486 1000 14 8
0.444385 0.036967 4.917158 1000 14 10
0.441010 0.054456 5.455694 1000 14 12
0.456590 0.043891 5.860518 1000 14 14
0.428234 0.039774 6.463388 1000 14 16
0.442463 0.060930 7.025669 1000 14 18
0.446403 0.046914 7.511765 1000 14 20
0.441749 0.032919 8.067570 1000 14 22
0.448788 0.039192 8.518806 1000 14 24
0.443277 0.036794 3.941188 1000 16 6
0.452869 0.031714 4.473021 1000 16 8
0.440534 0.063000 4.982856 1000 16 10
0.443610 0.075436 5.586147 1000 16 12
0.455044 0.040007 6.117470 1000 16 14
0.449994 0.024163 6.577963 1000 16 16
0.437448 0.059515 7.342067 1000 16 18
0.428522 0.069541 7.934564 1000 16 20
0.440065 0.044570 8.367076 1000 16 22
0.434957 0.033922 8.985033 1000 16 24
0.450123 0.040189 4.042227 1000 18 6
0.446825 0.039398 4.494534 1000 18 8
0.436719 0.059979 5.124134 1000 18 10
0.449751 0.032870 5.727917 1000 18 12
0.451775 0.035631 6.308829 1000 18 14
0.424576 0.039553 6.824745 1000 18 16
0.456722 0.054629 7.360866 1000 18 18
0.446540 0.063575 7.917473 1000 18 20
0.425550 0.063221 8.464266 1000 18 22
0.425306 0.055297 9.046085 1000 18 24
